# .PCD v0.7 - Point Cloud Data file format
VERSION 0.7
FIELDS x y z
SIZE 4 4 4
TYPE F F F
COUNT 1 1 1
WIDTH 99
HEIGHT 1
VIEWPOINT 0 0 0 1 0 0 0
POINTS 99
DATA ascii
-0.69464576 0.53236383 2.0780001
-0.72636664 0.69617993 1.9809999
-0.69880384 0.77255619 1.936
-0.71019143 0.7361514 1.947
0.031011429 0.27221143 1.206
0.059410479 -0.43829241 1.177
0.041898094 0.26610953 1.189
-0.90931523 0.89117432 2.381
-0.90024477 0.94106191 2.381
-0.88840193 1.0345657 2.398
-0.93609995 0.83489996 2.415
-0.098994285 0.59257144 1.464
-0.89117432 0.98641425 2.381
-0.93864572 0.83359051 2.398
-0.92292094 0.89570951 2.381
0.055113334 -0.34305236 1.181
-0.91838568 0.89117432 2.381
-0.93864572 0.82902288 2.398
0.019800954 0.2783781 1.223
0.024639999 0.37429333 1.232
-0.95013243 0.82768095 2.381
0.035487618 0.26672953 1.202
0.040199999 0.35720569 1.206
0.033529524 0.3618876 1.214
0.058965713 0.74111813 1.214
-0.105 0.59780002 1.47
0.015191428 0.1834657 1.227
0.068610474 -0.27106762 1.181
0.016058095 0.89801812 1.2970001
0.058771431 0.7294572 1.21
0.035841905 0.3618876 1.214
0.057362854 -0.26656857 1.181
0.0242 0.17861906 1.21
0.024279999 0.18383428 1.214
-0.098994285 0.59535998 1.464
-0.92689997 0.8211 2.415
0.038833331 -0.48042378 1.165
0.014770476 -0.014770476 1.193
0.030574286 0.16872476 1.189
0.021442857 -0.019185713 1.1849999
0.059612378 -0.25532097 1.181
0.021442857 -0.01692857 1.1849999
0.026417142 0.17343429 1.206
0.045091428 0.5468781 1.214
0.016985714 -0.0079266662 1.189
0.017042857 -0.017042857 1.193
0.05044286 -0.25894001 1.177
0.047599047 0.64665043 1.219
0.045091428 0.54919046 1.214
0.10222286 0.74771994 1.206
0.035723813 0.36760953 1.21
0.014473334 -0.25272667 1.169
0.028809523 0.28463808 1.21
0.076380007 0.78773999 1.197
0.023699999 -0.0078999996 1.1849999
0.0078999996 -0.19072856 1.1849999
0.053982858 0.6305657 1.206
0.049920954 0.64665043 1.219
0.049920954 0.70469809 1.219
0.10717143 0.69949526 1.21
0.040466666 0.44744572 1.214
0.038311429 0.47018573 1.219
-0.90770954 0.9392429 2.365
0.047599047 0.69308853 1.219
0.040466666 0.44513333 1.214
0.04971619 0.6393733 1.214
0.035221905 0.19883333 1.193
0.099925712 0.64664567 1.206
0.040466666 0.45207044 1.214
0.038311429 0.46321997 1.219
0.040466666 0.45669523 1.214
0.033667617 0.38891903 1.219
-0.0867 0.58763337 1.4450001
0.021442857 0.0056428569 1.1849999
0.053803809 0.63534284 1.202
0.058965713 0.78274095 1.214
0.017042857 0.0034085715 1.193
0.047599047 0.68147904 1.219
0.038311429 0.4678638 1.219
0.027642857 -0.38147146 1.161
-0.1055 0.56688666 1.477
-0.90320474 0.9392429 2.365
0.01873238 -0.48814377 1.1569999
0.056653332 0.75036758 1.214
0.054340951 0.70874476 1.214
0.027642857 -0.38589427 1.161
-0.010157142 -0.4615857 1.1849999
0.058965713 0.77811617 1.214
0.027642857 -0.37926 1.161
-0.003385714 -0.37355712 1.1849999
0.054564763 0.78364289 1.219
0.038437143 0.49036476 1.223
0.047599047 0.67915714 1.219
0.059814282 0.22909999 1.1849999
0.052414291 0.7652486 1.223
0.045277145 0.60485619 1.219
0.045277145 0.60949999 1.219
0 0 0
-0.062754288 -0.28177905 1.2920001
